-7.4295883179 -1.2587409019 1.7201068401
-7.4468035698 -1.2146956921 1.7222950459
-7.4348349571 -1.1659671068 1.7179185152
-5.0409045219 0.7629307508 1.1021428108
-5.0457963943 0.7953627706 1.1041997671
-4.9606552124 0.8132335544 1.0871273279
-4.9517126083 0.8430024385 1.0863045454
-5.0428318977 0.8903064132 1.1068737507
-5.1431813240 0.9405124784 1.1294999123
-5.1603941917 0.9764011502 1.1344364882
-5.2542052269 1.0275026560 1.1558283567
-5.3005685806 1.0703358650 1.1671414375
-6.4155879021 -1.5048884153 1.4156171083
-7.4207234383 -1.2202854156 1.6112301350
-7.4406361580 -1.1767238379 1.6139041185
-7.4535207748 -1.1319315434 1.6151381731
-7.2279272079 -1.0522108078 1.5657721758
-7.1790037155 -1.0001133680 1.5540477037
-7.2626047134 -0.9664152861 1.5705031157
-5.1288199425 -0.6492545605 1.1171582937
-5.1249346733 -0.6168307662 1.1155128479
-7.3102736473 -0.8361468315 1.5770852566
-5.1451554298 -0.5233910680 1.1175696850
-5.1521668434 -0.4921865165 1.1183924675
-7.4594969749 -0.5300835371 1.6023852825
-7.4557733536 -0.4838555753 1.6009454727
-4.5079355240 -0.2354057133 0.9793448448
-4.5190706253 -0.2082003951 0.9814017415
-4.5535082817 -0.1818255931 0.9883952737
-5.0367059708 -0.1706094593 1.0898013115
-5.0396146774 -0.1397574544 1.0902127028
-4.5932617188 -0.0988127291 0.9962115884
-5.0507349968 -0.0780623183 1.0922696590
-5.0579690933 -0.0471395366 1.0937094688
-5.0689277649 -0.0161465723 1.0959720612
-5.2184672356 0.0472970121 1.1274429560
-4.3520927429 0.0668364242 0.9454056621
-5.2390189171 0.1117743850 1.1319681406
-5.2352995872 0.1438399702 1.1313511133
-5.2499680519 0.1764742285 1.1346421242
-4.3207836151 0.1725167781 0.9394406080
-5.2464294434 0.2408420146 1.1344364882
-5.2546262741 0.2735300362 1.1364933252
-5.2938833237 0.3081230521 1.1451324224
-5.3250989914 0.3427112103 1.1521259546
-5.2604160309 0.3710212708 1.1389616728
-5.3770895004 0.4123291075 1.1640560627
-5.5032024384 0.4558829963 1.1912074089
-5.4954276085 0.4892112017 1.1901789904
-4.9346389771 0.5927588940 1.0751972198
-5.0241246223 0.6347255707 1.0949436426
-5.0230464935 0.6659245491 1.0955606699
-4.4595952034 0.2241744250 0.9077950716
-4.5668845177 0.2576357722 0.9291840196
-4.9099531174 0.3071189821 0.9970120192
-4.8541331291 0.3335555792 0.9864138961
-4.5975747108 0.3443544209 0.9363136888
-4.4564886093 0.3613401353 0.9089512229
-4.4747166634 0.3904628158 0.9129977822
-4.8767690659 0.4857898057 0.9933508635
-5.2595415115 0.5890757442 1.0702354908
-5.4112749100 0.7071055174 1.1026079655
-5.4136395454 0.7412252426 1.1039568186
-5.1253442764 0.7338911295 1.0476903915
-5.1178331375 0.7648914456 1.0471122265
-5.1198306084 0.7973346710 1.0484610796
-5.0993432999 0.8262273669 1.0453780890
-5.1744956970 0.8709986806 1.0613715649
-5.1932210922 0.9069463611 1.0661889315
-5.1643834114 0.9346066117 1.0615643263
-5.2337851524 0.9803490043 1.0765943527
-5.2902927399 1.0245555639 1.0891194344
-7.4355988503 -1.2355148792 1.5111175776
-7.3568053246 -1.1760658026 1.4939678907
-7.3871598244 -1.1344822645 1.4985924959
-7.1046962738 -1.0464676619 1.4411699772
-7.2411804199 -1.0212414265 1.4669908285
-7.2833371162 -0.9361879230 1.4729642868
-7.3016061783 -0.8930315971 1.4754693508
-7.3313155174 -0.8510462046 1.4802867174
-7.3510298729 -0.8076562881 1.4831770658
-7.3236389160 -0.7591910958 1.4768182039
-7.3340191841 -0.7148120403 1.4779742956
-4.5708470345 -0.2193707377 0.9295694232
-4.5966167450 -0.1923534274 0.9343867302
-5.0899839401 -0.1818683445 1.0311187506
-4.5652832985 -0.1349356323 0.9278351665
-4.9054455757 -0.1149717867 0.9945070148
-4.6136884689 -0.0797303468 0.9370844364
-4.8181796074 -0.0537552387 0.9771646261
-4.9430365562 -0.0248517729 1.0016366243
-4.9656648636 0.0054973075 1.0060685873
-4.4131026268 0.0321182013 0.8975823522
-4.4363703728 0.0595044047 0.9022069573
-4.4408273697 0.0868187174 0.9031704664
-5.1641469002 0.1324376613 1.0453780890
-5.1593141556 0.1639981270 1.0446072817
-5.1856665611 0.1966860443 1.0500026941
-5.1608343124 0.2274702787 1.0453780890
-4.7152819633 0.1435572505 0.8987727761
-4.7044839859 0.1721245348 0.8969641328
-4.7426433563 0.2026783973 0.9041986465
-4.4662604332 0.2182505131 0.8535571694
-4.3116440773 0.2371757329 0.8253425956
-4.4514660835 0.2723177373 0.8513868451
-4.5468568802 0.3061973751 0.8692921996
-4.4585781097 0.3277198970 0.8533763289
-5.4290108681 0.7362203598 1.0387603045
-5.4088115692 0.7673041821 1.0358664989
-5.2415347099 0.7763706446 1.0056624413
-7.0826597214 -1.1852955818 1.3518332243
-7.2645835876 -1.1699302197 1.3843884468
-7.3892335892 -1.1435118914 1.4062728882
-7.2200212479 -1.0720384121 1.3735367060
-7.2352271080 -1.0289616585 1.3751645088
-7.2784380913 -0.9895758629 1.3820372820
-7.3578896523 -0.7257277966 1.3908995390
-7.3759150505 -0.6818318367 1.3934316635
-4.9582552910 -0.3974892199 0.9459778666
-4.9556965828 -0.3666969240 0.9450735450
-4.9549098015 -0.3360835612 0.9445309639
-4.9460802078 -0.3050115407 0.9425414801
-4.9400024414 -0.2742232978 0.9410945773
-7.3305315971 -1.0983777046 1.3104971647
-7.3013539314 -0.7752556801 1.2984246016
-7.1747751236 -0.5842423439 1.2735990286
-7.2303075790 -0.5440976620 1.2826110125
-4.3379912376 0.2584280968 0.7813404799
-4.3028931618 0.2828115821 0.7755591869
-5.3273715973 0.7811234593 0.9605600238
-5.4432544708 0.8323571682 0.9816446900
-7.4247155190 -1.2525675297 1.3307316303
-7.3807039261 -1.1986426115 1.3217196465
-7.4142107964 -1.1574224234 1.3263107538
-7.4203982353 -1.2282435894 1.2284884453
-7.4199929237 -1.1814432144 1.2272315025
-7.4075794220 -1.1328960657 1.2240890265
-7.4642210007 -1.0947586298 1.2321023941
-7.4067225456 -0.7172322869 1.2157614231
-7.3598608971 -0.6216015220 1.2069624662
-7.3497529030 -0.5753439069 1.2047628164
-7.1925930977 -0.5185688734 1.1791515350
-4.4377760887 0.2542704344 0.7390473485
-5.4542589188 0.7509654760 0.9077984691
-5.5609955788 0.8003755212 0.9257106185
-4.2311911583 0.3155280948 0.6504492760
-4.2469301224 0.3429120779 0.6530445814
-7.4533233643 -1.2411469221 1.1331756115
-7.4344177246 -1.1911591291 1.1292825937
-7.4494109154 -1.1467257738 1.1304360628
-7.3712797165 -0.9501342177 1.1151527166
-7.3386664391 -0.9001812339 1.1095294952
-7.3401203156 -0.8546765447 1.1089527607
-7.3314561844 -0.8081019521 1.1069341898
-7.3274188042 -0.7621787190 1.1056365967
-7.2984728813 -0.7139225006 1.1007343531
-7.2790665627 -0.6669550538 1.0972739458
-7.2889375687 -0.6227855682 1.0981390476
-7.1377501488 -0.5657446384 1.0755021572
-7.3702535629 -0.4932856262 1.1085202694
-7.3435101509 -0.4462471306 1.1041947603
-7.1722102165 -0.3916504085 1.0788184404
-7.1764550209 -0.3477313519 1.0791068077
-7.3089566231 -0.3092368841 1.0981390476
-7.2365489006 -0.2616880536 1.0873252153
-7.2409858704 -0.2173701525 1.0877578259
-7.1917304993 -0.1717218906 1.0804044008
-7.3070888519 -0.3600127995 1.0087049007
-7.2150816917 -0.3111313581 0.9961405396
-7.0009160042 -0.2589105368 0.9673086405
-7.1541852951 -0.1766699553 0.9874116182
-7.1729736328 -0.1330970079 0.9897922277
-7.1994252205 -0.0893970877 0.9932308793
-7.4496197701 -0.0467423275 1.0265594721
-7.4705820084 -0.0010305310 1.0293369293
-7.4635090828 0.0447652414 1.0284110308
-7.4485230446 0.1360945702 1.0265594721
-4.2791881561 0.3408908844 0.6053228974
-4.2878789902 0.3680770397 0.6067777276
-7.2879981995 1.1257702112 1.0165079832
-7.2682313919 1.1684197187 1.0147886276
-7.1563181877 1.1954995394 1.0006372929
-7.5235180855 -1.3064928055 1.0514236689
-7.4717564583 -1.2503360510 1.0433560610
-7.4577574730 -1.2010034323 1.0404464006
-7.4767413139 -1.1570378542 1.0420334339
-7.3001565933 -0.9014317989 1.0139951706
-7.2553410530 -0.8507440090 1.0072500706
-7.0781660080 -0.7860059738 0.9827826023
-7.1173596382 -0.7461711168 0.9874116182
-7.0705089569 -0.6974359155 0.9805342555
-7.1299285889 -0.6591382027 0.9879406095
-7.6552276611 -0.6129576564 1.0572429895
-7.6034865379 -0.5618934631 1.0498366356
-7.5820674896 -0.5135585666 1.0465302467
-7.3932538033 -1.0997973680 0.9452852607
-7.4042263031 -1.0087209940 0.9450429082
-7.4663882256 -0.9705336094 0.9519499540
-7.4623508453 -0.9234886169 0.9507381916
-7.4698486328 -0.8779137731 0.9509805441
-7.4918670654 -0.8339208961 0.9530405402
-7.5077023506 -0.7890714407 0.9543734789
-7.4927358627 -0.5557786822 0.9500111341
-7.4870915413 -0.5091923475 0.9489205480
-7.1756162643 -0.3997850418 0.9101440907
-6.9836115837 -0.3462277949 0.8863934875
-6.9975051880 -0.3038805425 0.8878476024
-7.5517616272 -0.2812171578 0.9553428888
-7.2566866875 -0.2258097976 0.9191111326
-7.4216709137 -0.1852773726 0.9391052127
-7.1318759918 -0.1344200075 0.9036005735
-7.1514248848 -0.0908860862 0.9059029222
-7.4645209312 -0.0488816872 0.9440734982
-7.4567394257 -0.0030803645 0.9431040883
-7.4909553528 0.0888564214 0.9473452568
-7.4555330276 0.1341743469 0.9431040883
-7.4277763367 0.1792568713 0.9398322701
-7.0513372421 0.3432738781 0.8946335316
-7.0570268631 0.3869729340 0.8956029415
-7.0446119308 0.4296567738 0.8943911791
-6.9863429070 0.5121955872 0.8879687786
-7.1688847542 0.8364409804 0.9139005542
-7.2877459526 0.8957390189 0.9291687608
-7.3136129379 0.9445246458 0.9330464005
-7.3686623573 0.9976728559 0.9405593276
-7.6080880165 1.0778049231 0.9708534479
-7.6052589417 1.1250500679 0.9713381529
-7.5511264801 1.1644074917 0.9655216932
-7.6751604080 1.2318657637 0.9817593098
-7.4510822296 -1.2959977388 0.9560699463
-7.4686846733 -1.2518900633 0.9572817087
-7.4919061661 -1.2085604668 0.9592205286
-7.5158576965 -1.1651444435 0.9612805247
-7.5326018333 -1.2536579370 0.8627347350
-7.4950008392 -1.2001602650 0.8577667475
-7.4806084633 -1.1508120298 0.8553907275
-7.5858712196 -1.1194559336 0.8661906719
-7.5020418167 -1.0600438118 0.8562547565
-7.5911564827 -1.0252127647 0.8653267026
-7.5884304047 -0.9774672389 0.8643546700
-7.5942854881 -0.9308871031 0.8643546700
-7.6047911644 -0.8848490119 0.8648946881
-7.6209468842 -0.8393732309 0.8660826683
-7.6447401047 -0.7945588231 0.8681346774
-7.7170724869 -0.5634757280 0.8737506270
-7.6787247658 -0.5133070946 0.8692146540
-7.1504011154 -0.3896338046 0.8111110330
-7.1179037094 -0.3440527022 0.8073310256
-7.1824550629 -0.3030472100 0.8141350150
-7.5676646233 -0.2730116248 0.8558227420
-7.6457114220 -0.2289036214 0.8641387224
-7.2196135521 -0.1715883464 0.8176989555
-7.2284822464 -0.1274310499 0.8185629845
-7.5661206245 -0.0871377215 0.8551747799
-7.5953431129 -0.0408818424 0.8583067060
-7.5954508781 0.0057230741 0.8583067060
-7.6385478973 0.0994768441 0.8630586863
-7.5920705795 0.1454924792 0.8580907583
-7.1978626251 0.3149920106 0.8158630133
-7.4932088852 0.8367271423 0.8522587419
-7.3891959190 0.8711034656 0.8414588571
-7.4251508713 0.9215465784 0.8459948301
-7.4331593513 0.9688805342 0.8475068212
-7.7078213692 1.0526636839 0.8782866001
-7.7159810066 1.1020389795 0.8799065948
-7.5481166840 0.3731685877 0.7572463751
-6.6899185181 0.3720572293 0.6751719117
-6.7570590973 0.4173808098 0.6818446517
-6.5775866508 0.4468599856 0.6648768783
-6.6738114357 0.5357267261 0.6746953130
-6.6042027473 0.6936411858 0.6694524288
-6.6957907677 0.7448061705 0.6786989570
-6.6871399879 0.7854130864 0.6783176064
-6.6881227493 0.8271617293 0.6788895726
-6.4193453789 0.8339964151 0.6534379125
-6.4377799034 0.8765874505 0.6557257175
-6.3910908699 0.9502599835 0.6522940397
-6.3455333710 1.0232360363 0.6490529776
-6.2929911613 1.0544306040 0.6445727348
-6.2775759697 1.0914909840 0.6437148452
-6.2697811127 1.1298125982 0.6436194777
-7.5288681984 -1.2564518452 0.7644910216
-7.5059680939 -1.2053338289 0.7615359426
-7.5201091766 -1.1603190899 0.7622032166
-7.5467810631 -1.1170734167 0.7641097307
-7.6461367607 -1.0838958025 0.7730702162
-7.7226781845 -1.0464620590 0.7798382640
-7.8178029060 -1.0105575323 0.7884175181
-7.7527222633 -0.9538052082 0.7815541029
-7.7050385475 -0.8999718428 0.7764065862
-7.8203654289 -0.5262470245 0.7841278911
-8.0364170074 -0.2442166656 0.8034787774
-7.1889014244 -0.1741743088 0.7221669555
-7.4376597404 -0.1345907301 0.7459027171
-7.8320784569 0.0023865369 0.7835559249
-7.8060350418 0.0502810255 0.7810775042
-7.1237516403 0.0897200331 0.7157801986
-7.1240620613 0.1334473193 0.7158755064
-7.2833271027 0.1811113507 0.7312227488
-7.2343201637 0.2243256569 0.7266471982
-7.1343255043 0.2650701702 0.7172100544
-8.0200510025 -0.2457302660 0.7062430382
-7.9357147217 0.1951911300 0.6990616918
-8.0260028839 0.2467122972 0.7067440152
-7.9954586029 0.2948842943 0.7043224573
-8.1926145554 0.3525390625 0.7210232019
-8.1246080399 0.3995598853 0.7155119777
-8.2284660339 0.4553124905 0.7244468927
-7.5552244186 -1.3106297255 0.6764321327
-7.4815435410 -1.2506248951 0.6695013046
-7.5117053986 -1.2083314657 0.6714218855
-7.5081453323 -1.1605452299 0.6705033183
-7.6905889511 -1.1404428482 0.6853670478
-7.7558221817 -0.9562335610 0.6887071729
-7.5282716751 -0.8345669508 0.6685827374
-7.8977513313 -0.5821961164 0.6974751353
-8.1449060440 -1.1587066650 0.6267746687
-8.2534742355 -1.0709438324 0.6336718202
-8.2183113098 -1.0151660442 0.6306543350
-8.1507320404 -0.7034577131 0.6234697700
-8.1350097656 -0.6518490911 0.6220328212
-7.4893250465 -1.3012769222 0.5817274451
-7.4853625298 -1.2533285618 0.5808653235
-7.4929122925 -1.2073756456 0.5808653235
-7.5504527092 -1.1691343784 0.5845293999
-7.5939588547 -1.3145837784 0.4883635342
-7.5093317032 -1.2524762154 0.4828378558
-7.5257453918 -1.2078046799 0.4833669066
-7.5744490623 -1.1680165529 0.4858358204
-8.3591556549 -1.0801371336 0.5308641195
-8.2257633209 -0.7053735852 0.5206945539
-8.2120246887 -0.6534538269 0.5196364522
-8.2168750763 -0.6031270623 0.5196952224
-7.5924201012 -1.3163744211 0.3928955197
-7.5313878059 -1.2582288980 0.3896468878
-7.5399527550 -1.2121522427 0.3896932900
-7.5946331024 -1.1731935740 0.3919209242
-8.7809600830 -1.1916185617 0.4465908408
-8.2605085373 -0.9150732160 0.4210194349
-8.4169788361 -0.8801864982 0.4280736148
-8.3943853378 -0.8257815838 0.4267741442
-8.3992948532 -0.7742590904 0.4267741442
-8.3730354309 -0.7200492024 0.4253354669
-8.4340524673 -0.6731991172 0.4279807806
-8.4247360229 -0.5685036182 0.4271918237
-8.4480066299 -0.5180256367 0.4281200171
-8.3832025528 -0.4624277055 0.4249641895
-8.6159248352 -0.2623770833 0.3317236304
-8.7262763977 -0.2121364623 0.3354706466
-7.5676851273 -1.3114236593 0.2994099855
-7.5026407242 -1.2527968884 0.2968661487
-7.5674200058 -1.2159237862 0.2988599837
-8.6478366852 -1.1184252501 0.3351612687
-8.7626581192 -1.0786345005 0.3389082551
-8.6689453125 -0.9592769146 0.3352300227
-8.6011104584 -0.8983956575 0.3326861858
-8.5484781265 -0.7341209650 0.3303485811
-8.7669544220 -0.5905186534 0.3374644816
-8.6536998749 -0.5295900702 0.3334424496
-8.1929168701 -1.0601987839 0.2201437354
-7.5740370750 -1.3611341715 0.2075002193
-7.5388998985 -1.3071430922 0.2065173388
-7.5457925797 -1.2606964111 0.2064950019
-7.5780649185 -1.2183269262 0.2070534527
-7.5758171082 -1.3141672611 0.1083852649
-7.5413322449 -1.2605468035 0.1079800054
-7.5430016518 -1.2132943869 0.1079234555
-7.6609759331 -1.1841542721 0.1089790165
-8.3193807602 -1.0779407024 0.1149825156
-7.5714769363 -1.3620162010 0.0161122363
-7.6043224335 -1.3198121786 0.0160467867
-7.5767717361 -1.2671835423 0.0161410347
-7.5952644348 -1.2224192619 0.0161122363
-8.3284759521 -1.1316291094 0.0142482268
-8.2856788635 -1.0740695000 0.0143791260
-8.2236337662 -1.0147480965 0.0145597672
-7.5833377838 -1.3648539782 -0.0777261406
-7.5925545692 -1.3184686899 -0.0777409747
-7.6143083572 -1.2741647959 -0.0779486597
-7.5884184837 -1.2220211029 -0.0774442777
-8.2888755798 -1.1267648935 -0.0875170752
-7.6420569420 -1.4231607914 -0.1734069288
-7.5827536583 -1.3640669584 -0.1715405285
-7.6087107658 -1.3205820322 -0.1720274240
-7.6314611435 -1.2763366699 -0.1724331528
-7.6679763794 -1.3787266016 -0.2769720554
-7.5965557098 -1.3177759647 -0.2737072408
-7.6143527031 -1.2727919817 -0.2741103172
-7.6062364578 -1.2235000134 -0.2734653950
-7.6657204628 -1.3776004314 -0.3664764464
-7.6169600487 -1.3206335306 -0.3634712994
-7.6456046104 -1.2773313522 -0.3645593524
-7.6394944191 -1.2281731367 -0.3638339937
-7.5797719955 -1.4122804403 -0.4552476406
-7.6452631950 -1.3759881258 -0.4589501023
-7.6584787369 -1.3299045563 -0.4592692852
-7.6822433472 -1.2855205536 -0.4602906406
-7.6022953987 -1.2242532969 -0.4546092749
-7.6510157585 -1.4289838076 -0.5592123270
-7.6596398354 -1.3820111752 -0.5592123270
-7.6846756935 -1.3378851414 -0.5605136156
-7.7153587341 -1.2944904566 -0.5622741580
-7.6876187325 -1.3808788061 -0.6639030576
-7.6802468300 -1.3309533596 -0.6624696255
-7.7589311600 -1.2467499971 -0.6682033539
-7.7060480118 -1.3862482309 -0.7549750805
-7.7340130806 -1.3423447609 -0.7569927573
-7.7371973991 -1.2940430641 -0.7564883232
-7.7685656548 -1.2503424883 -0.7589095235
-7.8025498390 -1.4537484646 -0.8621940613
-7.7399344444 -1.3930099010 -0.8539555669
-7.7581257820 -1.3471906185 -0.8550841212
-7.7789859772 -1.3016918898 -0.8565512300
-11.7578382492 -6.2367272377 5.9850192070
-11.8058929443 -6.0777764320 5.9711256027
-11.7851552963 -6.1516747475 5.7623958588
-11.7570610046 -6.1385183334 5.5120801926
-11.8224382401 -5.9891839027 5.5078759193
-11.8473882675 -5.9107532501 5.5025253296
-10.5120525360 -7.6271066666 5.2160725594
-10.5805912018 -7.4803814888 5.2041993141
-10.6685314178 -7.3478713036 5.2027149200
-10.7034311295 -7.2754869461 5.1978917122
-10.9280614853 -7.1376581192 5.2420458794
-11.0145864487 -7.0981321335 5.2624530792
-11.0665531158 -7.0358939171 5.2665348053
-11.1000747681 -6.9619383812 5.2620820999
-11.7323751450 -6.2059445381 5.3299832344
-11.8035173416 -6.0593829155 5.3281278610
-11.8280439377 -5.9805603027 5.3225622177
-10.4411830902 -7.9555072784 5.1261553764
-10.5061922073 -7.9036145210 5.1341218948
-10.5911664963 -7.8662223816 5.1518654823
-10.6181802750 -7.7856616974 5.1417260170
-10.8105115891 -7.4277958870 5.1221723557
-11.1030693054 -7.1375284195 5.1544003487
-11.1466550827 -7.0692667961 5.1544003487
-11.2087907791 -7.0125985146 5.1630907059
-11.2571620941 -6.9471158981 5.1656255722
-11.3019657135 -6.8793654442 5.1667118073
-11.7248086929 -6.1851100922 5.1764888763
-11.7699518204 -6.0254807472 5.1634531021
-10.6936130524 -7.9109067917 4.9844827652
-11.7486057281 -6.1692390442 4.9726090431
-11.8159141541 -6.0207695961 4.9694662094
-11.3244848251 -7.4232139587 4.8517088890
-11.3508377075 -7.3413085938 4.8436541557
-11.4012279510 -7.2750706673 4.8460035324
-11.4185495377 -7.1879119873 4.8345923424
-11.6612768173 -6.8504934311 4.8460035324
-11.6664133072 -6.7575616837 4.8309006691
-11.6904792786 -6.6760387421 4.8238525391
-11.7955827713 -6.1717696190 4.7704896927
-11.8416023254 -6.1035938263 4.7738461494
-11.8779907227 -6.0303936005 4.7735104561
-11.4947118759 -7.4990782738 4.7320413589
-11.5389175415 -7.4273829460 4.7313928604
-11.6044664383 -7.1709718704 4.7035074234
-11.6899700165 -7.0270528793 4.7028589249
-11.8704166412 -6.7445917130 4.7073984146
-11.7861194611 -6.6013774872 4.6581130028
-11.8286619186 -6.1563911438 4.5984511375
-11.8695812225 -6.0854220390 4.5997481346
-11.8023643494 -6.2870197296 4.4632949829
-11.7869224548 -6.1862702370 4.4431462288
-11.8103237152 -6.1064243317 4.4377942085
-11.7952127457 -6.1330990791 4.2377166748
-11.8241386414 -6.0562605858 4.2346982956
-11.7495727539 -6.1581640244 4.0260748863
-11.7539587021 -6.0688190460 4.0148224831
-11.7461605072 -6.1974692345 3.8546099663
-11.7635021210 -6.1146450043 3.8479664326
-11.7862586975 -6.0349068642 3.8432605267
-11.7990407944 -5.9503612518 3.8355100155
-11.7382011414 -6.1397900581 3.7002041340
-11.1869173050 -7.1227011681 3.5109975338
-11.1911029816 -7.0292191505 3.4988090992
-11.2385635376 -6.8681449890 3.4871284962
-11.2573032379 -6.7850694656 3.4800186157
-11.7404861450 -6.1281208992 3.5061728954
-11.7830266953 -6.0586223602 3.5076966286
-11.3578071594 -7.4649581909 3.4007897377
-11.3960685730 -7.3903737068 3.3986229897
-11.4387483597 -7.3187398911 3.3979008198
-11.4760532379 -7.2437520027 3.3957340717
-11.4871702194 -7.0551300049 3.3733456135
-11.4646644592 -6.9447793961 3.3543274403
-11.4920644760 -6.8653411865 3.3499941826
-11.5180845261 -6.7853360176 3.3454203606
-11.5015954971 -6.6808905602 3.3288094997
-11.4783649445 -6.5735273361 3.3105134964
-11.4601678848 -6.4700427055 3.2939026356
-11.4716663361 -6.3840246201 3.2859585285
-11.5038137436 -6.3097805977 3.2840325832
-11.7314462662 -6.1565103531 3.3158097267
-11.7655525208 -6.0826287270 3.3148467541
-11.5897445679 -7.3428616524 3.2606468201
-11.6329307556 -7.2705788612 3.2601883411
-11.6748371124 -7.1975312233 3.2595007420
-11.7994766235 -6.9779486656 3.2578964233
-11.7773208618 -6.8676681519 3.2402479649
-11.6235895157 -6.5882568359 3.1760718822
-11.6119585037 -6.4878559113 3.1620905399
-11.6174411774 -6.3977060318 3.1529226303
-11.7073974609 -6.1691722870 3.1460466385
-11.7476224899 -6.0985660553 3.1467342377
-11.9115161896 -7.2703680992 3.1597533226
-11.9592466354 -7.1991553307 3.1606285572
-11.7095260620 -6.1956076622 3.0011055470
-11.7360715866 -6.1177825928 2.9982607365
-11.7535495758 -6.1532692909 2.8190524578
-11.7902145386 -6.0805859566 2.8188467026
-11.8316640854 -6.0103454590 2.8198752403
-11.7653188705 -6.1821665764 2.6408779621
-11.8100013733 -6.1134691238 2.6424195766
-11.4798402786 -7.4693608284 2.5498661995
-11.4807596207 -7.3700947762 2.5400996208
-11.7670516968 -6.1979694366 2.4769785404
-11.8109712601 -6.1288218498 2.4782447815
-11.8798828125 -6.0723471642 2.4847557545
-11.5665979385 -7.5448670387 2.4143807888
-11.5571451187 -7.4380383492 2.4029881954
-11.5767717361 -7.3506183624 2.3977169991
-11.6032800674 -7.2679433823 2.3939762115
-11.4355211258 -7.0656270981 2.3509566784
-11.7161035538 -6.2808313370 2.3252811432
-11.7474489212 -6.2051444054 2.3239207268
-11.7853021622 -6.1329469681 2.3239207268
-11.4501285553 -6.8412113190 2.1539485455
-11.7224349976 -6.9067549706 2.1965291500
-11.7953300476 -6.8525657654 2.2021856308
-11.9948081970 -6.8704257011 2.2310965061
-11.7604398727 -6.1726136208 2.1449925900
-11.8173894882 -6.1103215218 2.1484491825
-11.9360074997 -7.6516861916 2.0980515480
-12.0011301041 -7.5899424553 2.1012234688
-12.0743398666 -7.5329256058 2.1058373451
-12.1270751953 -7.4628467560 2.1069908142
-12.2177429199 -7.3134670258 2.1069908142
-11.2211046219 -6.6235690117 1.9307986498
-11.3205432892 -6.5889453888 1.9407473803
-11.7237873077 -6.7277340889 2.0017368793
-11.8242721558 -6.6892976761 2.0116856098
-11.8590450287 -6.6132450104 2.0106763840
-11.7133932114 -6.2521586418 1.9668445587
-11.7383985519 -6.1732583046 1.9646818638
-12.5782909393 -6.4192633629 2.0898330212
-12.6218624115 -6.3441858292 2.0905539989
-12.6853828430 -6.2789139748 2.0945911407
-12.7272291183 -6.2026939392 2.0951678753
-12.7641563416 -6.1240563393 2.0950236320
-12.8014926910 -6.0456218719 2.0950236320
-12.8652658463 -5.9794740677 2.0993492603
-12.9107122421 -5.9045381546 2.1007909775
-12.9656486511 -5.8337368965 2.1038188934
-12.0576133728 -7.6362681389 1.9368802309
-12.3257312775 -7.4917907715 1.9571154118
-12.3578643799 -7.4078679085 1.9549993277
-11.2553758621 -6.4685473442 1.7646824121
-11.3302145004 -6.4193935394 1.7701048851
-11.6921653748 -6.3430190086 1.8074011803
-11.6958971024 -6.2524695396 1.8021109104
-11.7279024124 -6.1773538589 1.8011851311
-11.8174972534 -6.1322073936 1.8089883327
-12.6607570648 -6.4713873863 1.9297384024
-12.9442911148 -6.0260906219 1.9376738071
-13.0026512146 -5.9564576149 1.9408478737
-12.3382377625 -7.7099847794 1.8089092970
-12.4064416885 -7.6471486092 1.8119387627
-12.4870634079 -7.5914969444 1.8167858124
-12.5529928207 -7.5264697075 1.8195728064
-12.5869731903 -7.4422345161 1.8178763390
-12.5869779587 -7.2352962494 1.8051528931
-12.5853576660 -7.1320028305 1.7987304926
-11.6639909744 -6.2371697426 1.6475024223
-11.7090692520 -6.1691827774 1.6484718323
-12.7101268768 -7.6096487045 1.6424900293
-12.7386045456 -7.5208983421 1.6402220726
-12.7630367279 -7.4300842285 1.6375221014
-11.6801271439 -6.2352724075 1.4715270996
-11.7084894180 -6.1583933830 1.4703390598
-11.6915636063 -6.2457599640 1.3028841019
-11.7217397690 -6.1697306633 1.3020261526
-11.6550903320 -6.3202729225 1.1448891163
-11.6725568771 -6.2373700142 1.1428849697
-11.7158994675 -6.1684165001 1.1433860064
-11.6134986877 -6.2994842529 0.9858590364
-11.6607313156 -6.2328057289 0.9865774512
-11.6237144470 -6.3023610115 0.8131434321
-11.6859350204 -6.2436294556 0.8147305846
-11.6681032181 -6.3281998634 0.6515797377
-11.7102365494 -6.2583703995 0.6517654061
-11.6858139038 -6.3342847824 0.4924324453
-11.7279863358 -6.2643461227 0.4925699234
-11.6530780792 -6.4084634781 0.3327067196
-11.6930599213 -6.3373169899 0.3327290416
-11.7476005554 -6.2739229202 0.3331311345
-11.6965198517 -6.3471608162 0.1613423079
-11.7431802750 -6.2795190811 0.1614271253
-11.6901121140 -6.3427863121 0.0014331610
-11.7341022491 -6.2737669945 0.0014174531
-11.5624895096 -7.5231246948 -0.1680697948
-11.7320804596 -7.3296809196 -0.1686483473
-11.7009096146 -6.4409942627 -0.1615721732
-11.7006587982 -6.3476257324 -0.1609046012
-11.7402687073 -6.2761836052 -0.1609194428
-11.5862150192 -7.3338899612 -0.3341068327
-11.6386299133 -7.2674231529 -0.3343502879
-11.7162027359 -7.2163085938 -0.3354052007
-11.7542791367 -7.1406521797 -0.3352158666
-11.6955461502 -6.9099802971 -0.3306445479
-11.6772527695 -6.8028817177 -0.3287510872
-11.6702241898 -6.7032361031 -0.3272363245
-11.7441949844 -6.6502103806 -0.3282642066
-11.6900177002 -6.4314260483 -0.3240986168
-11.7055292130 -6.3467187881 -0.3233682811
-11.7781085968 -6.2002692223 -0.3232330382
-5.4746818542 -10.4826602936 4.2408876419
-5.5322828293 -10.4363851547 4.2358536720
-5.5644674301 -10.9226188660 4.2294573784
-5.3479795456 -10.3404636383 4.0180482864
-5.7810373306 -10.8492326736 4.2414546013
-5.0408625603 -11.7140903473 4.2577166557
-5.1282572746 -11.7185850143 4.2706246376
-6.1354260445 -11.7845830917 4.4346461296
-6.3314213753 -11.9808073044 4.5224814415
-6.4420714378 -12.0111465454 4.5486111641
-4.6732501984 -12.6067609787 4.2854123116
-4.7542181015 -12.5876607895 4.2887330055
-4.8276028633 -12.5484638214 4.2854123116
-4.8114700317 -12.0622949600 4.1402125359
-5.0989279747 -11.9239263535 4.1344771385
-5.2479810715 -12.0672893524 4.1948513985
-5.3354110718 -12.0653829575 4.2054166794
-5.4605145454 -12.1463413239 4.2449617386
-5.6849980354 -12.2418622971 4.3020153046
-5.7811474800 -12.2515897751 4.3177127838
-6.2005548477 -12.1593780518 4.3500127792
-6.2548971176 -12.0821523666 4.3361268044
-6.3320164680 -12.0494537354 4.3382396698
-6.8071417809 -12.7633552551 4.6084141731
-6.8925848007 -12.7347640991 4.6132440567
-4.4517769814 -12.8575544357 4.1287918091
-4.5171995163 -12.7920761108 4.1166734695
-4.5673952103 -12.6857404709 4.0915713310
-4.7101130486 -12.8345575333 4.1484117508
-4.7381477356 -12.6699914932 4.1048440933
-4.7926273346 -12.5798349380 4.0852236748
-4.7100973129 -12.1386728287 3.9522111416
-5.0173392296 -12.6990709305 4.1432185173
-5.1312408447 -12.7577686310 4.1723599434
-5.2141389847 -12.7375640869 4.1761107445
-5.3444623947 -12.8308439255 4.2170820236
-5.0152463913 -11.8350772858 3.9020068645
-5.2006788254 -12.0661172867 3.9879889488
-5.2404165268 -11.9559288025 3.9623098373
-5.4371967316 -12.2007970810 4.0537738800
-5.6145343781 -12.1940383911 4.0739712715
-6.6358742714 -12.9212369919 4.4057812691
-6.7371597290 -12.9227294922 4.4202075005
-6.7702074051 -12.7939758301 4.3904891014
-6.9233160019 -12.8913822174 4.4380965233
-7.0091571808 -12.8612709045 4.4424247742
-4.3708882332 -13.2643928528 4.0519766808
-4.4273743629 -13.1635522842 4.0295548439
-4.4918370247 -13.0888776779 4.0151605606
-4.5431647301 -12.9785394669 3.9899706841
-4.6777672768 -12.8549919128 3.9694867134
-5.4500703812 -12.9598512650 4.0788273811
-5.5272197723 -12.9208650589 4.0771665573
-5.4617509842 -12.1447868347 3.8648519516
-4.1907310486 -13.3818874359 3.9151954651
-4.3684101105 -13.3715867996 3.9274806976
-5.4406967163 -6.2531599998 3.3385915756
-5.5021858215 -6.1692934036 3.3296864033
-5.2985687256 -6.6851754189 3.2062225342
-5.3447637558 -6.6591176987 3.2093653679
-5.7598643303 -6.6128478050 3.0336322784
-5.9011106491 -6.7395653725 2.9990630150
-5.2313404083 -6.9744429588 2.7887372971
-5.2740364075 -6.9422130585 2.7887372971
-5.8464031219 -7.5990610123 3.0640432835
-5.8870635033 -7.5555224419 3.0610246658
-5.9545640945 -6.2632975578 2.7645876408
-6.0212960243 -6.2561931610 2.7775681019
-5.9329214096 -6.4394087791 2.6670963764
-5.9684033394 -6.3986821175 2.6653652191
-5.9188232422 -6.2679462433 2.6264135838
-6.0317063332 -6.3456044197 2.5508275032
-6.0577216148 -6.2517147064 2.4415023327
-6.1087951660 -6.2274923325 2.4465765953
-4.9219369888 -6.8424062729 2.2421255112
-5.0594592094 -6.9434504509 2.2847852707
-5.2444138527 -7.0149054527 2.3287146091
-5.2920260429 -6.9887652397 2.3307459354
-6.1394190788 -6.2439112663 2.3282067776
-6.1987581253 -6.2273836136 2.3360784054
-6.2327346802 -6.1851415634 2.3345549107
-5.2097067833 -7.0023169518 2.1944601536
-6.2493977547 -6.3074884415 2.2320148945
-6.2772383690 -6.1819620132 2.2149226665
-6.3115739822 -6.1399450302 2.2137191296
-6.1441740990 -6.6178259850 2.1563591957
-6.2200026512 -6.6175866127 2.1685068607
-6.2953872681 -6.6159596443 2.1804254055
-6.3946237564 -6.6381878853 2.2003657818
-6.3210458755 -6.4817695618 2.1618599892
-6.3524909019 -6.4345512390 2.1591095924
-6.4067401886 -6.3321671486 2.1510877609
-6.2853698730 -5.9876179695 2.0740764141
-6.4531531334 -6.0723228455 2.1164784431
-4.8272676468 -6.9755001068 1.9325853586
-6.3503327370 -6.5350794792 2.0737271309
-6.3629274368 -6.4681797028 2.0649743080
-6.4612293243 -6.4088411331 2.0711011887
-6.4920639992 -6.3608841896 2.0684754848
-6.4937939644 -6.2849807739 2.0568776131
-6.4613318443 -6.0273427963 2.0117998123
-4.8236851692 -7.0841064453 1.8319374323
-4.8498454094 -7.0293965340 1.8255609274
-4.9433121681 -7.0717177391 1.8440731764
-4.9973492622 -7.0564317703 1.8479813337
-5.0399823189 -7.0248403549 1.8477756977
-5.1779918671 -7.0334153175 1.8662879467
-5.2228045464 -7.0038657188 1.8669049740
-5.2727546692 -6.9810614586 1.8693733215
-5.3315343857 -6.9695711136 1.8749269247
-6.3301973343 -6.8631320000 1.9929940701
-6.3588414192 -6.7265949249 1.9761273861
-6.3945846558 -6.6817927361 1.9744818211
-6.4466466904 -6.5727624893 1.9656370878
-6.4206905365 -6.4663872719 1.9458906651
-6.4872918129 -6.4537987709 1.9539126158
-6.5302577019 -6.4173030853 1.9549410343
-6.5182743073 -5.7334403992 1.8551806211
-6.5370850563 -5.6792092323 1.8506553173
-6.5621581078 -5.6307024956 1.8479813337
-6.4659848213 -5.4795479774 1.8119852543
-6.4319715500 -5.3832082748 1.7934730053
-6.4558329582 -5.3361549377 1.7910047770
-6.6028823853 -5.3899431229 1.8220641613
-6.6099362373 -5.3284325600 1.8150706291
-6.5139279366 -5.1853175163 1.7805144787
-6.5340852737 -5.1361737251 1.7774291039
-4.8080425262 -7.1803646088 1.7278975248
-4.8641281128 -7.1685934067 1.7321367264
-5.0190219879 -7.2049932480 1.7552598715
-5.0467314720 -7.1508092880 1.7496718168
-5.1036367416 -7.1380696297 1.7541037798
-5.1456127167 -7.1042356491 1.7535256147
-5.1757583618 -7.0543303490 1.7490937710
-5.2195310593 -7.0232272148 1.7492864132
-5.2642965317 -6.9934206009 1.7498644590
-6.3095397949 -6.9478626251 1.8739589453
-6.3474040031 -6.9039597511 1.8726100922
-6.3936572075 -6.8691930771 1.8737663031
-6.4080991745 -6.8005485535 1.8658658266
-6.4208698273 -6.6486868858 1.8460184336
-6.4094944000 -6.4759240150 1.8201975822
-6.4407758713 -6.4281544685 1.8178851604
-6.5045504570 -6.4126291275 1.8246294260
-6.4791097641 -6.3096041679 1.8069016933
-6.5212383270 -6.2731323242 1.8078651428
-6.6079707146 -6.2789707184 1.8209682703
-6.1754751205 -5.4496397972 1.6483151913
-6.2065782547 -5.4097104073 1.6477370262
-6.2619614601 -5.3907351494 1.6535178423
-6.5797042847 -5.5944285393 1.7269339561
-6.4395937920 -5.4075255394 1.6822291613
-6.4809598923 -5.3748030663 1.6843488216
-6.5327930450 -5.3504824638 1.6891660690
-6.5494799614 -5.2973356247 1.6851196289
-6.5251312256 -5.2117233276 1.6708602905
-6.5500535965 -5.1661176682 1.6691260338
-6.5645995140 -5.1125626564 1.6648868322
-4.6602497101 -7.2622060776 1.6180628538
-4.7084770203 -7.2392454147 1.6193288565
-4.7825851440 -7.2553772926 1.6292762756
-4.5363054276 -6.7908611298 1.5330574512
-4.5436978340 -6.7124080658 1.5218440294
-4.5714445114 -6.6649389267 1.5175032616
-5.9082665443 -7.4772300720 1.7837327719
-6.2181482315 -7.0336308479 1.7576886415
-6.2611885071 -6.9953446388 1.7576886415
-6.3844642639 -6.9592876434 1.7679977417
-6.4277148247 -6.9207029343 1.7681787014
-6.4870653152 -6.8149495125 1.7614867687
-6.4641823769 -6.5453596115 1.7229630947
-6.4958767891 -6.4972281456 1.7207926512
-6.4824409485 -6.4047217369 1.7070471048
-6.5789608955 -6.3424348831 1.7117495537
-6.6099176407 -6.2944879532 1.7097600698
-6.6312203407 -6.2376418114 1.7054194212
-6.6225295067 -6.1533284187 1.6936633587
-6.5992870331 -6.0567250252 1.6784708500
-6.6560025215 -6.0339508057 1.6833541393
-6.6731152534 -5.9752855301 1.6784708500
-6.5266866684 -5.0947384834 1.5538566113
-6.5601615906 -5.0563964844 1.5543992519
-6.6184597015 -5.0368909836 1.5607293844
-6.6728320122 -5.0139064789 1.5661553144
-5.3873491287 -7.1921195984 1.5820471048
-6.1280136108 -7.8738231659 1.7531048059
-6.1176204681 -7.7617998123 1.7367812395
-6.0205926895 -7.5431828499 1.6968224049
-6.1565389633 -6.9815692902 1.6376494169
-6.1913819313 -6.9348444939 1.6356089115
-6.2344775200 -6.8974547386 1.6357790232
-6.2820067406 -6.8648848534 1.6371393204
-6.4977788925 -6.7597794533 1.6493819952
-6.5061311722 -6.6858973503 1.6412202120
-6.3509893417 -6.3684215546 1.5834074020
-6.5695967674 -6.4277758598 1.6174149513
-6.6082043648 -6.3866600990 1.6172448397
-6.6429896355 -6.3419117928 1.6162246466
-6.6222467422 -6.2449431419 1.6021115780
-6.6669330597 -6.2102346420 1.6036418676
-6.3254790306 -5.1414303780 1.4380253553
-6.3922724724 -5.1308784485 1.4458470345
-6.4321327209 -5.0982885361 1.4477174282
-6.9213171005 -5.4168462753 1.5480396748
-6.6899509430 -5.0402340889 1.4767938852
-6.7001857758 -4.9838085175 1.4723728895
-6.7250781059 -4.9385232925 1.4711827040
-6.7720141411 -4.9093036652 1.4747534990
-5.0446476936 -7.8328747749 1.5141398907
-5.3196544647 -7.8309211731 1.5380226374
-5.4095730782 -7.8591632843 1.5498069525
-5.2350125313 -7.1266222000 1.4387203455
-5.2497730255 -7.0555295944 1.4310213327
-5.3143506050 -7.0515871048 1.4366776943
-5.3934488297 -7.0659642220 1.4461051226
-5.4324779510 -7.0272665024 1.4450052977
-5.4919219017 -7.0148038864 1.4492475986
-5.5330209732 -6.9786520004 1.4487762451
-5.5405144691 -6.9006595612 1.4398201704
-5.5927143097 -6.8787984848 1.4423341751
-6.1690464020 -6.7855076790 1.4908854961
-6.2238097191 -6.5975008011 1.4748588800
-6.3848447800 -6.6856560707 1.5026698112
-6.5698337555 -6.7955188751 1.5356658697
-6.6114063263 -6.7550792694 1.5356658697
-6.6450877190 -6.7066650391 1.5339374542
-6.6768379211 -6.4950313568 1.5138256550
-6.6838216782 -6.4224505424 1.5065978765
-6.7073516846 -6.3663539886 1.5031411648
-6.7868576050 -6.1322631836 1.4871145487
-6.8250932693 -6.0911622047 1.4872716665
-6.8956604004 -5.7122721672 1.4564753771
-6.8801503181 -5.6285586357 1.4461051226
-6.3079028130 -5.0956625938 1.3219772577
-6.3745493889 -5.0852098465 1.3292049170
-6.4521603584 -5.0826911926 1.3386323452
-6.4458231926 -5.0138826370 1.3310904503
-6.4592423439 -4.9609942436 1.3276337385
-6.4856276512 -4.9182820320 1.3268480301
-6.5894126892 -4.8085556030 1.3296762705
-5.3056254387 -7.3306312561 1.3507485390
-5.3001980782 -7.2292985916 1.3383487463
-5.2783923149 -7.1076536179 1.3222001791
-5.3183364868 -7.0703868866 1.3213350773
-6.3224353790 -7.3202533722 1.4415841103
-6.3047089577 -7.2098011971 1.4277424812
-5.9067859650 -6.6715507507 1.3305628300
-6.4600687027 -7.2070593834 1.4424492121
-6.4629454613 -7.1218461990 1.4335098267
-6.0392966270 -6.5733566284 1.3328697681
-6.5599622726 -7.0528697968 1.4356725216
-6.6126103401 -7.0225734711 1.4376910925
-6.6659979820 -6.9074268341 1.4309145212
-6.4959902763 -6.6490635872 1.3866502047
-6.4434356689 -6.5147886276 1.3673295975
-6.4657869339 -6.4576449394 1.3637250662
-6.6954579353 -6.6055202484 1.4026545286
-6.8472490311 -6.2750301361 1.3854967356
-6.8540811539 -6.2043380737 1.3792967796
-6.8934965134 -6.1634845734 1.3795851469
-6.9475007057 -6.1354842186 1.3827571869
-6.9395332336 -6.0530543327 1.3739620447
-6.9563040733 -5.9929184914 1.3700690269
-6.9436440468 -5.6911535263 1.3403673172
-6.2493557930 -5.0581307411 1.2036813498
-6.3968091011 -4.9854421616 1.2139183283
-6.4744348526 -4.6131300926 1.1905605793
-6.5560336113 -4.6108975410 1.2000766993
-6.7378201485 -4.6772603989 1.2273274660
-6.7819008827 -4.6464591026 1.2300668955
-6.8004474640 -4.5981059074 1.2283366919
-5.0946578979 -7.7286429405 1.2676628828
-5.1952300072 -7.6745700836 1.2691177130
-6.0585970879 -7.4769773483 1.3165977001
-6.2455601692 -7.5171761513 1.3365684748
-6.3330507278 -7.5280098915 1.3451651335
-6.3752651215 -7.4844822884 1.3443715572
-6.4437303543 -7.4714922905 1.3490005732
-6.4751081467 -7.4153895378 1.3460909128
-6.5014438629 -7.3539862633 1.3422554731
-6.5471057892 -7.3146939278 1.3423877954
-6.6085071564 -7.2927446365 1.3456941843
-6.6631827354 -7.2630128860 1.3476780653
-6.7298860550 -7.2459559441 1.3520424366
-6.6825418472 -7.1070508957 1.3341878653
-6.6795449257 -7.0170993805 1.3251944780
-6.7259149551 -6.9795508385 1.3258557320
-6.7388463020 -6.9076452255 1.3201687336
-6.7884087563 -6.5442924500 1.2906755209
-6.7860789299 -6.4621930122 1.2828724384
-6.8219923973 -6.4170374870 1.2822110653
-6.8699531555 -6.3831529617 1.2837982178
-6.9720044136 -6.3203330040 1.2881625891
-6.9862818718 -6.2556180954 1.2837982178
-6.9510183334 -6.1476330757 1.2707047462
-6.9751701355 -6.0931310654 1.2683241367
-7.0004158020 -6.0398588181 1.2662080526
-7.2903833389 -5.4777722359 1.2492792606
-7.1315155029 -5.2227745056 1.2119829655
-6.4978990555 -4.6374816895 1.0977134705
-6.5481133461 -4.6129336357 1.1012843847
-6.5787363052 -4.5743656158 1.1016811132
-6.7186598778 -4.6107325554 1.1198002100
-6.7394371033 -4.5644192696 1.1186099052
-6.6469855309 -4.4425854683 1.0993005037
-6.6286044121 -4.3717098236 1.0920263529
-6.6852154732 -4.3504128456 1.0967876911
-6.7443165779 -4.3301916122 1.1019456387
-5.9582495689 -7.5434689522 1.2062991858
-6.0044236183 -7.5067677498 1.2062991858
-6.0728745461 -7.4975428581 1.2106615305
-6.1443724632 -7.1273598671 1.1815792322
-6.0390925407 -6.9190831184 1.1539509296
-6.5707116127 -7.4350838661 1.2441061735
-6.6003165245 -7.3768792152 1.2411979437
-6.6454558372 -7.3362417221 1.2411979437
-6.7151794434 -7.3223857880 1.2456815243
-6.7691640854 -7.2018322945 1.2393803596
-6.7290263176 -7.0717473030 1.2244756222
-6.6937508583 -6.9488601685 1.2106615305
-6.8569002151 -7.0312609673 1.2317461967
-6.9027047157 -6.9918799400 1.2322309017
-6.7893576622 -6.6286659241 1.1911520958
-6.7941632271 -6.5524439812 1.1850932837
-6.8435873985 -6.5195293427 1.1866686344
-6.9514427185 -6.4614009857 1.1913944483
-6.9178109169 -6.3515248299 1.1792768240
-6.2415227890 -5.0623817444 1.0138710737
-6.2732424736 -5.0246090889 1.0139921904
-6.3140797615 -4.9940228462 1.0155675411
-6.3727779388 -4.9771676064 1.0199298859
-6.4157791138 -4.9476637840 1.0218687057
-7.1223001480 -5.4226136208 1.1255956888
-7.1420602798 -5.3005137444 1.1185674667
-7.1440119743 -5.2343115807 1.1139627695
-7.1397895813 -5.1642165184 1.1085097790
-7.1761908531 -5.1237688065 1.1092368364
-7.1472330093 -4.9718756676 1.0956650972
-6.4294171333 -4.4147572517 0.9849098921
-6.4530968666 -4.3729982376 0.9844251871
-7.0204539299 -4.6944665909 1.0637956858
-6.9123773575 -4.5611629486 1.0438016653
-6.7946133614 -4.4239540100 1.0225957632
-6.7982382774 -4.3671693802 1.0192028284
-6.7318115234 -4.2664389610 1.0057522058
-5.7048134804 -7.9848604202 1.0992532969
-5.6907849312 -7.8627023697 1.0875893831
-5.2101912498 -7.1058359146 0.9903899431
-5.2566556931 -7.0777249336 0.9909299612
-5.9856586456 -7.9576883316 1.1149132252
-5.9738192558 -7.5487117767 1.0789494514
-6.0448799133 -7.5429563522 1.0832693577
-6.1411385536 -7.5675001144 1.0919092894
-6.3148918152 -7.5894207954 1.1057332754
-6.8818545341 -7.3989748955 1.1308971643
-6.9387054443 -7.3689184189 1.1327331066
-6.9193372726 -7.2585377693 1.1225811243
-6.8974723816 -7.0599684715 1.1054092646
-6.8141794205 -6.8895249367 1.0858613253
-5.1841244698 -5.1129446030 0.8241789341
-5.2908391953 -5.1546177864 0.8356269002
-5.3946776390 -5.1917219162 0.8465347886
-5.4005060196 -5.1338505745 0.8426468372
-5.4232130051 -5.0924458504 0.8413508534
-5.3297810555 -4.9433989525 0.8228829503
-5.4259519577 -4.9710812569 0.8326029181
-5.3694138527 -4.8589329720 0.8198589683
-5.4139432907 -4.8391542435 0.8220189810
-5.4651360512 -4.8249368668 0.8251509070
-5.4519495964 -4.7540459633 0.8189949989
-7.2142424583 -6.2149353027 1.0676094294
-7.2287774086 -6.1505713463 1.0642615557
-7.2371773720 -6.0061359406 1.0548655987
-7.2508354187 -5.9427008629 1.0516256094
-7.2766370773 -5.8160123825 1.0451456308
-7.2839670181 -5.6767506599 1.0363976955
-7.3021221161 -5.6192107201 1.0341297388
-7.1742444038 -5.4509315491 1.0119898319
-7.1781411171 -5.3847222328 1.0079938173
-7.2316455841 -5.2874231339 1.0063738823
-6.8890485764 -4.4748291969 0.9255903363
-6.9014415741 -4.3633685112 0.9201903939
-6.9171223640 -4.3140950203 0.9187863469
-6.6632747650 -4.0990090370 0.8830385804
-6.7375812531 -4.0879821777 0.8893025517
-5.2075958252 -7.2004513741 0.8845046163
-5.2334451675 -7.1434664726 0.8815495968
-5.2831091881 -7.1192150116 0.8825027943
-5.8768110275 -6.7250852585 0.8887942433
-6.0365905762 -6.7392258644 0.8999472260
-6.9209294319 -7.6320333481 1.0201514959
-6.8962788582 -7.5116863251 1.0100470781
-5.3912196159 -5.8000245094 0.7918491960
-5.4601273537 -5.8023629189 0.7965200543
-6.4649581909 -6.7866044044 0.9311183691
-5.5101928711 -5.7134227753 0.7936603427
-5.5847778320 -5.7201113701 0.7990938425
-6.9868812561 -7.0693650246 0.9853579998
-5.6017532349 -5.5983619690 0.7919445038
-5.6969113350 -5.6240386963 0.8001424074
-5.7106480598 -5.5688190460 0.7973780036
-5.7676482201 -5.5557775497 0.8004283905
-5.9018535614 -5.6156797409 0.8136785030
-5.9376502037 -5.5807247162 0.8138691187
-7.0700674057 -6.4838442802 0.9521850944
-7.0905389786 -6.4229626656 0.9497066140
-7.0971794128 -6.3501248360 0.9455123544
-7.2455768585 -6.1695208549 0.9448450804
-7.2657752037 -6.1102080345 0.9426526427
-7.3146152496 -6.0750527382 0.9440824986
-7.3365898132 -5.8684873581 0.9332154989
-7.3388743401 -5.7968239784 0.9291165471
-7.3026504517 -5.2752156258 0.8962295651
-7.3708062172 -5.0538716316 0.8893662095
-7.3546895981 -4.9767436981 0.8839327097
-7.3478388786 -4.9066405296 0.8796430826
-7.0615777969 -4.5297141075 0.8369376659
-7.0471849442 -4.4596772194 0.8321714401
-6.8294711113 -4.1477813721 0.7987125516
-6.7847743034 -4.0638427734 0.7908959389
-6.8387203217 -4.0393533707 0.7941369414
-5.6456766129 -6.7087826729 0.7686204314
-5.6731600761 -6.6580886841 0.7668668628
-5.1924104691 -6.0188612938 0.6999801993
-5.1571197510 -5.9043421745 0.6907947659
-5.2480530739 -5.9345369339 0.6977255940
-5.3222632408 -5.9445352554 0.7024853230
-5.4188818932 -5.9782061577 0.7100006938
-5.9979443550 -6.5357913971 0.7772213817
-6.5663948059 -7.0674948692 0.8422709107
-6.5850539207 -7.0009436607 0.8392647505
-6.3619055748 -6.6811599731 0.8069487214
-5.5997118950 -5.8091697693 0.7100006938
-7.0531921387 -7.2272439003 0.8800981641
-7.0266590118 -7.1122417450 0.8716642857
-7.1117491722 -7.1105575562 0.8765910268
-7.0572214127 -6.8849854469 0.8600572348
-7.0634517670 -6.8069839478 0.8558820486
-7.1020278931 -6.4359049797 0.8370101452
-7.1528449059 -6.3238496780 0.8339205384
-7.2012715340 -6.2883610725 0.8350060582
-7.4738531113 -5.7583222389 0.8244845867
-7.5138039589 -5.7159743309 0.8249856234
-7.5399694443 -5.6631808281 0.8240670562
-7.5617675781 -5.6073150635 0.8227310181
-7.5799479485 -5.5490407944 0.8210608959
-7.5039992332 -5.4230604172 0.8097043633
-7.4073219299 -5.2843370438 0.7963437438
-7.3401942253 -5.1688055992 0.7861562967
-7.5016908646 -5.1459703445 0.7961767316
-7.3738465309 -4.9920487404 0.7800604701
-7.4076528549 -4.9489235878 0.7803944945
-7.3621616364 -4.8534779549 0.7727956176
-7.3358306885 -4.7718162537 0.7672008872
-7.1155867577 -4.4443988800 0.7368889451
-7.0333032608 -4.0986404419 0.7160129547
-6.8250055313 -3.9214067459 0.6934669018
-5.3678946495 -7.1479115486 0.6780723929
-5.4193644524 -6.9464855194 0.6688043475
-5.4835395813 -6.9404840469 0.6713189483
-5.2666535378 -6.5828385353 0.6414311528
-5.2259020805 -6.4504642487 0.6321630478
-5.3242506981 -6.4899635315 0.6388447285
-4.9634923935 -5.9755458832 0.5937256813
-5.0315418243 -5.9823646545 0.5972461104
-5.0138001442 -5.8876199722 0.5912110806
-5.0146389008 -5.8159723282 0.5873314142
-5.5536403656 -6.3611412048 0.6424369812
-5.6097512245 -6.3463668823 0.6443049908
-5.6652240753 -6.3303999901 0.6461011171
-5.7448329926 -6.3405880928 0.6504836679
-5.9232659340 -6.4573035240 0.6653557420
-6.1688437462 -6.5613646507 0.6828860641
-6.2633376122 -6.5804409981 0.6885618567
-6.3582959175 -6.5986022949 0.6942376494
-6.5763459206 -6.7414498329 0.7125583291
-6.4619302750 -6.5434889793 0.6966086030
-6.5541653633 -6.5558910370 0.7019251585
-6.6105937958 -6.5316686630 0.7035775781
-7.1161360741 -6.9450063705 0.7504209280
-7.1701092720 -6.9122829437 0.7515704632
-7.0985960960 -6.4353108406 0.7243409753
-7.1327452660 -6.3869781494 0.7238380909
-7.4757542610 -5.9097537994 0.7206050158
-7.5158076286 -5.8668394089 0.7209642529
-7.5943374634 -5.8534750938 0.7248439193
-7.6190605164 -5.6521172523 0.7175156474
-7.6278395653 -5.5864133835 0.7152165771
-7.6716761589 -5.5465130806 0.7160787582
-7.5431423187 -5.3835234642 0.7017096281
-7.4569487572 -5.2533235550 0.6912201643
-7.4890418053 -5.2074699402 0.6912201643
-7.4756088257 -5.1303987503 0.6872686744
-7.4739046097 -5.0620746613 0.6843948364
-5.2056965828 -7.3865308762 0.5666633844
-5.2091832161 -7.2959356308 0.5624309778
-5.2287106514 -7.2290425301 0.5599032640
-5.2458457947 -7.1597695351 0.5571992397
-5.3003807068 -7.1418809891 0.5582573414
-5.3476996422 -7.1140131950 0.5586100221
-5.4426202774 -7.1486024857 0.5636066794
-4.7370357513 -6.1423683167 0.4913026989
-5.3236088753 -6.8168215752 0.5438553095
-5.3319163322 -6.7417306900 0.5406810045
-5.1212172508 -6.3939824104 0.5169324279
-4.8593268394 -5.9909133911 0.4887750149
-4.8795318604 -5.9409189224 0.4872466326
-4.9337544441 -5.9323668480 0.4888925850
-6.1416444778 -6.4465785027 0.5588451624
-6.9499559402 -7.2066941261 0.6240950823
-6.9724354744 -7.1417617798 0.6222727895
-6.9403686523 -7.0221338272 0.6159241199
-6.3826966286 -6.3786301613 0.5658991933
-6.4231352806 -6.3407502174 0.5660167933
-7.1691784859 -6.9915084839 0.6242126226
-6.5809531212 -6.3390517235 0.5726005435
-6.6197247505 -6.2985525131 0.5726005435
-7.2351560593 -6.3938808441 0.6031093001
-7.5004291534 -5.9993491173 0.6001113057
-7.5073409081 -5.9296889305 0.5978775620
-7.5357141495 -5.8773703575 0.5972896814
-4.7949080467 -7.0798797607 0.4321576059
-5.1128911972 -7.4506564140 0.4547124207
-4.9618163109 -7.1361598969 0.4387013018
-4.9738764763 -7.0606603622 0.4361487925
-5.0455336571 -7.0698547363 0.4384228289
-5.1467466354 -7.1189141273 0.4430173337
-5.2062625885 -7.1089620590 0.4442703724
-5.2271738052 -7.0463933945 0.4425068200
-5.2409143448 -6.9750509262 0.4402327836
-5.2630496025 -6.9157319069 0.4386548698
-5.2998976707 -6.8761868477 0.4382371902
-5.8916125298 -6.7444114685 0.4509532750
-5.9044327736 -6.6759548187 0.4489576817
-5.3250069618 -5.9466719627 0.4057508409
-5.5198159218 -6.0141034126 0.4141508937
-5.5708904266 -5.9954910278 0.4151254892
-5.6048359871 -5.9582848549 0.4149398506
-6.0676360130 -6.3716268539 0.4436670542
-6.1066174507 -6.3342766762 0.4436670542
-7.0794448853 -7.2540593147 0.5058088303
-7.1483907700 -7.2353587151 0.5074331164
-7.2915353775 -7.2902531624 0.5139304399
-6.3504796028 -6.2716627121 0.4495609999
-6.3609600067 -6.2053699493 0.4477510452
-7.1303386688 -6.8712635040 0.4949491024
-6.6232771873 -6.3045620918 0.4597246051
-6.6945805550 -6.2946004868 0.4618130028
-7.3046755791 -6.3784060478 0.4854352474
